# .PCD v0.7 - Point Cloud Data file format
VERSION 0.7
FIELDS x y z scale
SIZE 4 4 4 4
TYPE F F F F
COUNT 1 1 1 1
WIDTH 72
HEIGHT 1
VIEWPOINT 0 0 0 1 0 0 0
POINTS 72
DATA ascii
0.010215671 -0.014629818 0.65066671 0.0047568283
0.0024829474 -0.001842085 0.65050006 0.0040000002
0.0096256398 0.013331761 0.65100002 0.0040000002
-0.0046517192 0.033828538 0.65050006 0.0067271716
0.0078148115 0.032861676 0.64900005 0.0040000002
0.025837582 -0.044042613 0.65500009 0.0067271716
0.00070058246 0.0097766696 0.65200001 0.0040000002
0.029924795 0.030656546 0.65266675 0.0047568283
0.017863646 0.042313296 0.65219998 0.0056568542
0.041086823 0.046607688 0.65500003 0.0040000002
-0.0055596763 0.049126204 0.65250003 0.0040000002
0.0060744416 0.052766345 0.65333343 0.0040000002
-0.0019949987 -0.12245364 0.65825003 0.0067271716
0.021403285 -0.11344451 0.65800005 0.0056568542
0.044056319 0.029744025 0.65900004 0.0047568283
0.010641199 -0.15359554 0.66150004 0.0040000002
0.021496356 -0.15370508 0.66200006 0.0040000002
-0.0019976515 -0.14877537 0.66000003 0.0047568283
0.037771858 -0.137464 0.66175002 0.0040000002
-0.013828952 0.037203126 0.66300005 0.0056568542
0.034189582 0.055140421 0.66050005 0.0040000002
-0.0065557426 0.058991034 0.66300005 0.0040000002
-0.010176195 -0.15429375 0.6645 0.0040000002
0.034315489 -0.12630229 0.6645 0.0040000002
0.044408657 -0.05103714 0.6645 0.0047568283
-0.012668184 -0.042333275 0.6656667 0.0067271716
0.04179085 -0.16527385 0.66900003 0.0047568283
-0.01487804 -0.058771193 0.66949999 0.0040000002
0.050191753 -0.0055553974 0.66850007 0.0040000002
0.053959716 0.035740465 0.67000002 0.0056568542
0.052479565 -0.069374688 0.67500001 0.0056568542
-0.017781308 0.032326646 0.67500001 0.0047568283
-0.017751062 0.046127852 0.67400002 0.0067271716
-0.021562872 -0.11244205 0.67900002 0.0047568283
0.0081328051 0.074938662 0.67600006 0.0040000002
0.052836433 -0.13125859 0.68100005 0.0040000002
0.05501489 -0.023457458 0.68300003 0.0047568283
0.054938596 -0.01220985 0.68200004 0.0056568542
-0.021771012 -0.16416557 0.68700004 0.0067271716
0.054994233 -0.14226176 0.68500006 0.0056568542
-0.021771774 -0.016940363 0.68400002 0.0067271716
-0.021977242 -0.14868139 0.69300002 0.0047568283
-0.022050712 0.045528822 0.69300002 0.0047568283
0.034784406 -0.0744991 0.65500003 0.0080000004
0.019900164 0.012446431 0.65138888 0.013454343
0.012454999 -0.1401778 0.65941668 0.0095136566
-0.0088007376 -0.10647756 0.66200006 0.0080000004
0.004075686 -0.052423999 0.65600002 0.0080000004
0.028141547 -0.046836112 0.65645838 0.0080000004
0.042671707 -0.027569521 0.66070002 0.011313708
-0.0099365767 -0.020663619 0.66062504 0.0095136566
0.0038852678 -0.16426221 0.66474998 0.0095136566
-0.020125456 -0.076257184 0.67643756 0.011313708
0.054361247 0.011961958 0.67483342 0.0095136566
0.055100247 -0.051610362 0.68433332 0.0095136566
0.055027366 -0.043746375 0.6833334 0.013454343
-0.021812238 -0.011335058 0.68525004 0.0095136566
0.057107359 0.055371113 0.68600005 0.0080000004
-0.022272322 0.048864413 0.70000005 0.0080000004
-0.020408235 0.058614563 0.70200002 0.011313708
0.025565451 0.079163514 0.69700003 0.0095136566
0.059277706 -0.1453713 0.71400005 0.0095136566
0.062005367 -0.16202858 0.72350001 0.0080000004
0.049825191 -0.1635173 0.66782504 0.022627417
0.0085488334 -0.087936588 0.65687048 0.016000001
0.024462052 0.069932818 0.66481423 0.016000001
0.053568788 -0.040461674 0.67893475 0.016000001
-0.022020672 -0.16177621 0.69475007 0.026908686
0.05532638 -0.098885231 0.68800002 0.026908686
-0.021028537 -0.16251159 0.6876806 0.032000002
-0.020723462 -0.015446283 0.67888546 0.032000002
0.036679514 0.068634227 0.68836117 0.032000002
